ply
        format ascii 1.0
        element vertex 78037
        property float x
        property float y
        property float z
        property uchar blue
        property uchar green
        property uchar red
        end_header
-1572.160339 -1374.650574 11006.987000 169 191 202
-1548.379898 -1007.778645 10995.493317 96 112 124
-1459.762573 -8.827236 10375.738525 215 225 232
-1280.392838 2387.481689 10299.200439 209 218 222
-1268.271255 2360.481453 10129.132080 209 218 222
-1142.322445 3152.487946 8502.784729 203 221 228
-1539.212227 -1619.706535 11008.160400 70 92 104
-1101.326084 3418.013000 8000.136566 138 158 170
-1529.442883 -1866.042328 11026.988983 120 138 149
-1072.554493 3268.552017 8240.406036 208 227 233
-1438.181210 -1454.641342 10921.547699 86 106 118
-1044.743443 3315.303421 8005.493927 207 225 230
-1412.949848 -1188.456345 10862.818146 60 77 90
-1332.882881 -325.449467 10154.832458 120 122 123
-1082.097530 2964.142799 8724.810791 203 222 229
-1428.816319 -1585.751915 10857.558441 86 107 119
-1012.989044 3413.531113 7873.438263 49 60 104
-1420.706367 -1781.028557 10921.016693 167 187 198
-1253.192902 88.533342 10148.073578 207 215 222
-1357.997513 -1466.508007 10840.457153 176 201 213
-1377.164173 -1870.783806 10921.264648 104 125 136
-1312.706947 -939.690208 10729.412079 157 170 177
-1095.511627 2308.708572 10335.689545 205 212 215
-1095.511627 2308.708572 10335.689545 205 212 215
-968.091297 3376.350021 7856.901550 62 80 122
-965.188885 3293.258286 7899.202728 167 189 196
-1299.568272 -1112.993050 10783.928680 149 174 184
-1274.346828 -818.878460 10951.428223 153 156 156
-1316.314697 -1505.158901 10811.929321 164 187 199
-1042.799091 2753.076553 10592.823792 29 33 36
-1290.150261 -1457.165432 10783.238220 79 101 112
-1290.150261 -1457.165432 10783.238220 79 101 112
-1260.003567 -1165.133381 10765.926361 167 187 199
-936.004066 3182.966995 8188.204956 226 246 248
-943.056107 2953.799057 8992.939758 7 7 11
-1243.075562 -1651.352692 10831.062317 98 119 130
-899.407387 3228.275681 7938.217926 204 224 228
-893.408489 3300.821304 7844.379425 73 95 128
-1221.515656 -1714.768600 10787.308502 167 187 198
-1210.978508 -1596.302700 10743.909454 160 182 193
-1135.400772 -427.968311 10007.184601 58 62 68
-1212.578773 -1768.577766 10804.100037 75 95 106
-1189.331913 -1498.210812 10743.929291 168 188 199
-1167.136288 -1126.183701 10626.332855 168 186 198
-1147.855091 -1023.824310 10699.559784 165 185 193
-1156.731987 -1277.991867 10706.119537 155 176 184
-1167.987728 -1589.153671 10753.728485 75 94 105
-878.831387 2921.479797 8667.765045 3 5 6
-1167.641163 -1629.874420 10732.920074 154 176 187
-802.756882 3929.682159 6987.832642 113 139 209
-1135.214710 -1235.089302 10691.954803 87 104 114
-841.597176 3228.319168 7863.416290 220 241 245
-1117.732620 -1088.254929 10677.790833 166 190 198
-1130.959988 -1325.820637 10717.279816 156 176 187
-967.137814 795.159912 10138.787079 35 38 43
-815.574646 3119.960785 8192.761993 209 227 231
-936.396503 1112.958717 10154.415131 35 41 44
-1083.333206 -1482.479858 10706.361389 155 172 184
-1059.740257 -1171.342945 10668.155670 54 71 82
-861.031151 2144.801331 10124.658966 39 42 47
-1046.339703 -1077.319813 10675.177765 176 198 206
-1015.869331 -532.719707 10055.147552 224 233 238
-928.498936 875.121498 10131.758118 31 35 42
-985.024834 -116.132736 10289.752197 38 43 48
-1067.963028 -1703.111076 10685.567474 159 180 191
-1029.040146 -1139.656353 10651.230621 170 191 202
-1031.261826 -1243.798161 10674.418640 56 75 85
-1062.150860 -1828.317070 10767.029572 155 175 186
-1042.361641 -1680.907822 10714.813232 62 80 91
-990.222359 -791.668367 10003.730011 56 59 62
-1028.540611 -1791.457748 10726.331329 89 109 120
-979.770088 -1040.273094 10651.316071 157 176 183
-743.454885 2837.250900 10092.492676 200 202 204
-757.929897 2536.162186 10207.182312 228 232 235
-757.929897 2536.162186 10207.182312 228 232 235
-732.907867 3188.290787 7906.053162 48 65 112
-986.629391 -1542.680359 10643.377686 158 178 189
-985.072899 -1606.686401 10668.531036 72 91 100
-985.072899 -1606.686401 10668.531036 72 91 100
-983.965778 -4373.421478 16192.919922 104 130 167
-954.241276 -1635.943794 10608.491516 75 96 107
-685.187244 3161.649132 8685.684967 73 71 71
-921.907711 -1336.283207 10631.536865 75 95 103
-861.437798 -152.973282 10018.451691 24 29 36
-861.437798 -152.973282 10018.451691 24 29 36
-850.221157 -9.350365 10025.183105 39 47 53
-928.857231 -1621.040726 10652.354431 162 183 194
-663.526440 3687.331009 6985.881042 105 135 195
-718.474531 1902.596855 10092.964172 37 43 51
-735.821581 1518.903255 10078.157806 30 36 46
-649.626541 2771.528244 10306.065369 209 213 214
-666.815281 2476.022148 10158.496857 39 42 50
-814.151573 69.424075 10028.015137 36 41 46
-904.162598 -1828.422928 10679.170990 169 189 200
-880.311584 -1421.540642 10618.808746 59 77 88
-860.983181 -937.811661 10310.620880 1 1 3
-777.105141 526.033640 10024.063110 226 232 238
-777.105141 526.033640 10024.063110 226 232 238
-738.648319 1036.398602 10074.724579 222 232 237
-852.540779 -1144.497967 10608.393860 155 176 184
-623.208857 3992.134857 6389.228439 86 109 184
-851.357460 -1392.701912 10619.660950 164 182 193
-851.357460 -1392.701912 10619.660950 164 182 193
-851.083755 -1578.098488 10595.866394 151 170 181
-820.546818 -1092.781925 10576.477814 79 97 106
-608.143187 3161.148453 8557.717133 71 70 70
-727.200794 525.334692 10010.726166 34 37 41
-727.200794 525.334692 10010.726166 34 37 41
-801.189613 -1044.915867 10603.926086 155 174 181
-610.340261 2107.555008 10055.697632 235 239 240
-810.506058 -1578.187466 10588.784790 82 102 113
-727.456570 92.437112 10022.905731 30 34 41
-689.669180 602.199364 10017.304230 21 25 34
-592.153931 3600.322723 6863.092041 27 37 64
-800.258350 -1917.397881 10832.364655 152 177 186
-705.374336 221.610498 9981.470490 31 37 42
-778.204918 -1431.856155 10592.418671 67 84 96
-566.246462 3669.858932 7347.550964 165 186 241
-630.661535 1240.614986 10011.759949 30 36 42
-764.379597 -1457.132626 10572.850037 79 99 110
-557.419157 2275.722122 10083.104706 38 42 47
-549.984360 2214.263344 10063.404083 41 45 50
-722.861481 -1420.781708 10579.460907 177 196 207
-636.057138 415.515184 9981.381989 39 44 47
-549.996901 3569.658661 6848.070526 43 44 71
-549.996901 3569.658661 6848.070526 43 44 71
-531.817579 3346.201324 7706.630707 110 128 181
-727.078915 -1747.337914 10576.660919 72 90 98
-542.814636 3944.840622 6259.988785 170 179 216
-736.441422 -2105.762482 10663.611603 162 182 193
-592.670202 737.191534 10043.642426 24 29 39
-713.238859 -1849.882317 10601.982117 181 201 212
-680.053949 -1404.616833 10529.349518 71 91 102
-689.157820 -1608.883095 10559.161377 62 85 95
-601.236916 140.834486 10016.557312 34 37 43
-601.236916 140.834486 10016.557312 34 37 43
-479.688883 2152.766800 10020.928192 232 240 241
-679.816103 -2119.295502 10697.281647 88 105 116
-642.733574 -1321.371937 10494.545746 70 91 99
-542.109156 679.048777 10030.267334 16 25 35
-535.605812 736.839008 10027.841949 25 32 44
-439.192009 2257.550049 10048.206329 45 46 55
-462.722206 1749.302673 10014.559937 52 54 65
-435.301924 2117.701149 10011.248779 32 35 44
-502.329540 765.125418 10032.764435 207 217 227
-499.655962 815.407562 10009.081268 33 36 42
-449.203348 3456.480026 7606.916809 2 3 6
-460.929203 1317.436886 9972.225952 38 43 50
-460.929203 1317.436886 9972.225952 38 43 50
-447.032309 1525.146675 9984.284973 41 45 50
-447.032309 1525.146675 9984.284973 41 45 50
-585.947180 -1355.506802 10515.547180 165 185 195
-585.947180 -1355.506802 10515.547180 165 185 195
-464.367294 4125.740814 6253.597641 2 1 10
-598.851824 -2067.273140 10562.671661 64 82 93
-492.625809 256.971693 9953.321838 31 36 43
-471.520662 509.409904 9973.155212 201 214 222
-471.520662 509.409904 9973.155212 201 214 222
-469.360638 558.668566 9957.884216 27 28 34
-469.360638 558.668566 9957.884216 27 28 34
-577.072573 -1966.395187 10558.278656 79 99 110
-450.129986 760.608339 10033.739471 31 34 39
-450.129986 760.608339 10033.739471 31 34 39
-449.093199 813.161659 9972.736359 222 231 235
-374.776649 1822.256279 9978.535461 229 238 241
-337.865996 2331.753731 9964.633179 227 236 240
-477.148056 -38.877907 9910.838318 30 30 39
-477.148056 -38.877907 9910.838318 30 30 39
-516.190529 -1394.858646 10487.927246 96 116 127
-516.190529 -1394.858646 10487.927246 96 116 127
-516.190529 -1394.858646 10487.927246 96 116 127
-525.465584 -1695.624352 10501.107788 78 98 109
-442.052460 345.474076 9969.927216 24 31 40
-379.543996 1344.965172 9989.019775 46 48 56
-359.286022 1475.318336 9989.966583 40 42 49
-309.299278 1966.028404 9967.572784 46 48 52
-304.656005 1894.901466 9952.932739 234 244 245
-273.215437 2401.905441 9898.707581 216 219 221
-388.499975 344.372082 9918.511200 30 32 41
-478.544617 -2182.854080 10582.579803 157 178 189
-478.544617 -2182.854080 10582.579803 157 178 189
-459.731054 -1888.814354 10496.917725 161 181 192
-353.027320 417.324877 9972.342682 153 163 172
-353.027320 417.324877 9972.342682 153 163 172
-353.027320 417.324877 9972.342682 153 163 172
-417.451811 -1327.904320 10412.672424 99 118 129
-221.815395 2405.442429 9945.550537 223 228 229
-407.916307 -1822.426605 10456.247711 157 178 189
-407.517910 -2065.654564 10538.032532 99 117 128
-304.804444 3453.042221 7434.706879 1 2 4
-249.849868 1342.471504 9931.216431 40 48 57
-394.989371 -1987.992859 10467.206573 176 196 207
-278.242278 831.089497 9935.882568 35 40 45
-278.242278 831.089497 9935.882568 35 40 45
-269.750094 971.060944 9912.136841 21 27 34
-269.750094 971.060944 9912.136841 21 27 34
-204.843402 1837.090492 9936.582184 36 41 48
-169.178891 2410.698700 9905.016327 43 46 53
-289.139795 296.109486 9904.323578 196 210 221
-167.643678 2333.250999 9879.735565 34 36 45
-156.642890 2478.209496 9890.853119 38 39 44
-215.523171 1251.576996 9942.091370 39 43 48
-211.760592 1300.351810 9938.199615 226 232 239
-211.760592 1300.351810 9938.199615 226 232 239
-192.348123 1548.848724 9927.154541 38 44 49
-192.348123 1548.848724 9927.154541 38 44 49
-310.132170 -1147.469711 10379.493713 152 173 181
-175.600803 1804.059982 9936.014557 235 240 245
-160.487330 2003.646088 9919.760895 223 230 235
-156.044602 2053.010178 9924.935913 35 40 48
-141.100538 2302.813148 9875.733948 234 237 238
-258.173633 43.909022 9889.322662 204 213 223
-242.386818 243.956685 9897.336578 205 217 226
-312.833595 3780.139923 6193.000031 156 164 218
-182.648778 1044.888687 9912.891388 237 243 248
-182.648778 1044.888687 9912.891388 237 243 248
-266.904402 -1128.704262 10363.513947 85 103 112
-266.904402 -1128.704262 10363.513947 85 103 112
-167.715168 1244.328403 9905.216980 230 236 241
-167.715168 1244.328403 9905.216980 230 236 241
-160.513759 1296.035767 9936.107635 33 37 41
-160.513759 1296.035767 9936.107635 33 37 41
-147.581267 1499.386787 9926.533508 36 39 43
-144.560814 1544.726562 9899.787140 234 240 244
-144.560814 1544.726562 9899.787140 234 240 244
-287.574577 -1817.446899 10424.430847 80 100 111
-288.985848 -1874.867249 10429.391479 168 188 199
-224.635410 71.462035 9891.053009 35 41 50
-111.162448 2000.070381 9909.732819 38 41 46
-111.162448 2000.070381 9909.732819 38 41 46
-268.916965 -1528.280067 10362.748718 162 183 193
-251.079488 -1195.697975 10362.405396 164 184 192
-114.492571 1570.924282 9882.082367 67 69 77
-190.385461 156.964266 9874.993134 210 220 228
-206.911516 -1052.305889 10392.216492 173 190 198
-64.790100 2086.375427 9882.276154 38 41 51
-57.815677 2204.954338 9883.374786 45 47 55
-225.417757 -1974.095535 10393.460846 170 190 199
-127.114773 383.095741 9983.241272 43 46 50
-196.093726 -1623.566818 10354.959869 166 187 198
-139.251614 143.174243 9896.019745 205 214 223
-94.483596 890.484142 9872.803497 47 48 52
-94.483596 890.484142 9872.803497 47 48 52
-218.154192 -2344.393730 10379.956055 162 184 196
-22.069278 2096.710968 9816.159821 239 244 247
-22.069278 2096.710968 9816.159821 239 244 247
-143.488586 -1235.373974 10310.285950 118 136 145
19.475390 2411.290550 9846.527100 44 47 51
-157.111514 -1759.884644 10325.838470 156 176 187
-131.408501 -1377.921867 10342.024994 151 169 180
-42.575645 694.501781 9957.052612 35 37 43
-107.991111 -1090.877819 10285.218811 94 112 120
-107.991111 -1090.877819 10285.218811 94 112 120
-76.514661 205.050278 9876.171875 27 31 40
-118.842173 -1596.441364 10333.969879 160 180 191
9.521752 1568.933582 9823.187256 44 49 59
-2.937558 1201.750469 9873.148346 34 40 45
-120.569110 -1952.254105 10274.166107 157 178 189
-57.679707 -1043.270397 10295.637512 174 193 201
30.470201 1229.175663 9883.264160 213 219 224
51.560974 1482.111549 9895.854187 44 47 52
51.560974 1482.111549 9895.854187 44 47 52
-197.783554 -2499.346542 9514.785767 52 83 113
-85.907906 -2016.124535 10322.190094 108 124 136
-67.138362 -1573.222256 10279.723358 96 114 125
98.796850 2217.183113 9789.295959 226 231 234
-253.342175 -3621.120071 9373.923492 115 142 203
-44.687364 -1515.626717 10347.207642 96 114 124
-7.669455 28.137398 9887.166595 34 37 41
6.164091 230.662417 9871.778107 34 38 42
-50.541204 -1839.395905 10314.984131 77 95 106
-163.915431 -2582.223511 9563.162994 143 166 182
78.851575 1227.157688 9853.329468 35 38 41
81.454283 1275.466537 9842.259979 236 242 246
97.360647 1472.875404 9855.903625 241 246 249
97.360647 1472.875404 9855.903625 241 246 249
104.403424 1524.556065 9894.030762 45 49 52
-10.176556 -1360.383701 10278.163147 55 73 84
-10.176556 -1360.383701 10278.163147 55 73 84
-220.185566 -3557.911301 9354.776001 52 91 162
-25.536999 -1660.705948 10272.631836 94 114 125
-25.536999 -1660.705948 10272.631836 94 114 125
118.824708 1771.358490 9839.611053 237 241 245
118.824708 1771.358490 9839.611053 237 241 245
-6.876885 -1540.692806 10306.658936 138 156 167
15.673207 -1099.009132 10255.062103 134 154 162
-24.368778 -1900.429344 10258.101654 139 161 172
150.147164 2261.809731 9767.149353 231 237 241
150.147164 2261.809731 9767.149353 231 237 241
87.315905 815.278912 9861.896515 39 44 48
99.502528 935.282803 9908.821106 31 31 41
-118.183255 -2523.899269 9503.081512 140 161 173
2.892626 -1970.086288 10310.934448 78 96 107
2.892626 -1970.086288 10310.934448 78 96 107
-107.084394 -2601.363754 9592.649841 99 122 138
191.305804 2348.402214 9794.861603 37 39 50
166.695380 1922.135925 9787.886810 44 46 56
-68.924803 -2464.024544 9636.170197 32 60 91
96.848083 119.348633 9890.681458 48 50 51
55.709189 -1581.109905 10231.600952 146 165 174
67.957562 -1505.834103 10227.249146 146 164 175
100.878835 -82.986236 9825.173187 223 231 238
73.982626 -1673.983955 10272.260284 84 103 111
63.557756 -1877.625084 10264.436340 155 176 187
-230.229974 -3855.526733 8544.993591 103 135 186
210.058475 1619.338608 9832.398987 51 54 58
224.619031 1846.962547 9806.398010 197 201 210
224.619031 1846.962547 9806.398010 197 201 210
116.067743 -1152.064514 10251.976776 95 114 121
116.067743 -1152.064514 10251.976776 95 114 121
182.941508 865.888691 9879.298401 236 241 244
74.799740 -2113.768768 10255.585480 53 77 98
91.706038 -1938.363266 10287.078094 77 97 108
267.649555 2286.580276 9790.171051 40 38 49
120.253336 -978.435802 10048.867035 43 50 54
211.147523 924.938679 9886.557770 37 42 49
236.758280 1409.491253 9824.288940 51 56 57
216.714120 796.065855 9873.210907 29 32 41
161.741066 -1341.179180 10288.953400 96 113 123
161.741066 -1341.179180 10288.953400 96 113 123
248.816395 1289.446831 9809.286499 31 34 46
148.983860 -1563.321495 10233.203888 162 183 191
184.339011 -30.521351 9859.291840 222 233 237
184.339011 -30.521351 9859.291840 222 233 237
282.882476 1912.164879 9779.565430 41 44 51
212.120008 264.340234 9918.182373 241 246 249
212.120008 264.340234 9918.182373 241 246 249
173.384941 -1231.909084 10229.302216 86 103 114
52.251631 -2363.657951 9660.826111 69 99 129
156.590295 -1610.782051 10131.359863 75 93 104
271.905732 1210.250950 9816.130829 41 44 48
271.905732 1210.250950 9816.130829 41 44 48
271.167350 1256.309319 9767.011261 239 245 249
292.867565 1458.090782 9830.937958 239 243 248
292.867565 1458.090782 9830.937958 239 243 248
315.848327 1755.039215 9835.263824 240 244 248
217.205882 -231.191730 9839.972687 35 39 44
194.574809 -1683.331680 10188.912964 145 166 177
90.237045 -2376.951790 9641.436005 28 53 82
271.422553 513.745070 9839.299011 230 240 246
288.007927 711.074400 9852.130890 238 244 250
306.318974 961.039162 9843.514252 35 38 43
223.060298 -1528.494358 10165.398407 156 175 186
320.939851 1205.933762 9800.547791 238 242 246
337.729955 1451.971436 9775.652313 35 40 43
337.729955 1451.971436 9775.652313 35 40 43
278.601098 185.116780 9853.941345 47 49 58
324.960685 668.059874 9862.056732 42 45 50
255.378532 -1304.516220 10088.197327 142 163 171
383.189154 1538.196182 9778.646851 46 47 53
367.354274 1160.871983 9815.906525 43 49 55
350.484371 613.514948 9847.953796 234 240 242
335.460544 178.471291 9886.871338 40 43 49
379.293966 1103.270912 9806.915283 233 239 242
360.056162 540.011978 9853.793335 40 42 51
361.439896 598.083687 9798.716736 233 237 241
361.439896 598.083687 9798.716736 233 237 241
361.439896 598.083687 9798.716736 233 237 241
435.203171 2071.180916 9690.827179 235 239 245
403.820467 855.655003 9901.654053 46 49 53
403.820467 855.655003 9901.654053 46 49 53
329.905152 -1406.403351 10164.154816 164 184 195
433.843374 1592.955494 9716.880035 225 232 235
433.843374 1592.955494 9716.880035 225 232 235
433.843374 1592.955494 9716.880035 225 232 235
431.865931 1094.574642 9854.605865 32 37 39
431.865931 1094.574642 9854.605865 32 37 39
461.927557 1836.287308 9752.018738 48 51 55
416.787386 565.948057 9872.374725 240 248 251
416.787386 565.948057 9872.374725 240 248 251
395.859599 48.588958 9870.117188 43 46 50
357.332897 -1660.185242 10110.939026 149 166 177
469.783735 1025.605297 9778.201294 30 33 41
411.942768 -1152.800560 10147.676849 68 87 95
504.127121 1513.641357 9733.250427 37 41 51
413.365936 -1478.139782 10152.944183 157 177 188
528.207970 2012.446022 9693.558502 37 45 48
484.045601 697.631693 9838.281250 241 245 250
484.045601 697.631693 9838.281250 241 245 250
549.043417 2142.911911 9701.776123 33 35 43
549.043417 2142.911911 9701.776123 33 35 43
420.658445 -1536.698914 10119.742584 90 110 120
514.695930 1190.076828 9774.763489 236 243 247
533.281326 1483.924770 9745.610046 237 242 245
444.706440 -1439.679432 10122.706604 67 87 98
519.487667 445.810795 9877.201843 230 237 244
512.665462 497.486353 9800.925446 31 34 39
560.580730 3408.741379 9010.894012 59 55 54
511.269045 -159.890735 9841.296387 42 45 49
508.091831 -1262.811089 10067.622375 162 182 190
547.489214 -1299.236393 10122.173309 81 100 113
547.489214 -1299.236393 10122.173309 81 100 113
665.177774 2370.563698 9628.745270 31 33 42
141.974986 -3379.507446 8170.698547 40 68 132
590.563822 -1279.693317 10105.245209 147 167 178
610.146570 -120.785892 9848.461151 234 239 242
651.974201 841.305447 9794.799805 238 245 247
651.974201 841.305447 9794.799805 238 245 247
591.286373 -1156.025982 10035.036469 144 163 171
669.229317 1302.825356 9741.127014 224 231 234
669.229317 1302.825356 9741.127014 224 231 234
664.310455 1382.862949 9684.889984 36 43 49
671.442842 1563.285637 9639.890289 48 52 56
105.022490 -3875.514221 7857.817078 32 67 121
720.773602 2057.078743 9702.615356 45 48 52
711.006641 1855.188179 9685.377502 241 245 247
712.022448 2491.328239 9460.991669 206 211 214
660.816956 -342.980051 10044.599152 216 223 226
616.286898 -1577.266312 10081.385803 149 169 180
212.206721 -3382.632828 8204.608917 93 120 176
633.677721 -1497.683620 10062.791443 175 197 206
714.861774 1261.831379 9710.452271 34 37 45
703.577709 900.949669 9750.330353 44 51 59
745.487738 2293.108559 9530.815887 218 221 225
733.691406 1387.158680 9692.444611 39 41 50
685.304117 -1159.786320 10101.164246 129 151 159
724.229240 733.214092 9772.006989 238 243 248
724.229240 733.214092 9772.006989 238 243 248
753.903580 1220.880222 9719.045258 241 245 249
753.903580 1220.880222 9719.045258 241 245 249
677.309275 -1406.350422 9998.105621 94 109 121
772.516537 1463.169003 9714.122009 45 48 52
787.633038 1661.515236 9705.500793 38 41 44
785.924244 1706.694794 9678.190613 243 247 251
785.924244 1706.694794 9678.190613 243 247 251
673.510122 -1699.345398 10002.503204 131 150 159
721.185732 -9.114793 9793.331146 240 247 250
721.185732 -9.114793 9793.331146 240 247 250
757.204056 482.851267 9790.792847 240 249 250
757.204056 482.851267 9790.792847 240 249 250
706.771088 -1471.382904 10012.287140 152 170 181
794.048452 1167.366886 9686.911774 231 236 241
755.696535 16.454123 9800.556183 39 41 49
755.696535 16.454123 9800.556183 39 41 49
768.084192 153.695250 9824.408722 33 37 45
789.344406 510.028315 9788.656616 28 29 39
789.344406 510.028315 9788.656616 28 29 39
828.416252 1697.991562 9644.057465 35 38 46
828.416252 1697.991562 9644.057465 35 38 46
821.900082 1649.922371 9619.795990 233 240 243
821.900082 1649.922371 9619.795990 233 240 243
848.879242 2127.849579 9551.285553 234 238 242
823.222828 1080.156517 9710.647583 34 37 46
841.787910 612.699032 9775.251770 240 245 247
850.704861 1108.114433 9683.885193 239 244 248
850.704861 1108.114433 9683.885193 239 244 248
884.148121 2034.822083 9588.881683 44 40 49
808.286572 -181.856155 9784.300232 50 52 53
833.042240 66.199958 9839.183044 222 229 234
849.356365 326.370883 9804.335785 45 48 51
882.075310 1054.063225 9735.082245 226 232 237
882.075310 1054.063225 9735.082245 226 232 237
882.075310 1054.063225 9735.082245 226 232 237
899.521160 1584.061527 9639.865112 234 239 241
890.934849 1543.691730 9595.993805 235 239 242
890.934849 1543.691730 9595.993805 235 239 242
890.934849 1543.691730 9595.993805 235 239 242
888.135338 1519.358349 9569.080353 239 243 247
830.272484 -1042.376041 9941.326904 142 159 163
857.875347 42.808619 9766.362762 237 245 248
923.642540 2057.680511 9555.903625 236 242 243
923.642540 2057.680511 9555.903625 236 242 243
906.820679 1127.910709 9715.709686 54 59 69
923.887730 1481.418419 9664.826965 37 42 50
374.022198 -3258.951187 8043.367767 126 147 197
836.240578 -1672.905350 9942.696381 16 27 39
922.601509 630.368662 9781.504822 42 46 51
902.404594 146.001852 9802.976227 32 35 42
855.747604 -2013.395882 10064.959717 7 5 7
855.747604 -2013.395882 10064.959717 7 5 7
923.596382 504.059076 9790.386200 44 44 49
923.596382 504.059076 9790.386200 44 44 49
882.665539 -1077.164841 9954.808044 68 86 99
370.776796 -3792.737961 8012.165070 24 45 83
959.845161 1126.004696 9704.237366 34 40 47
974.829960 1600.817108 9633.766174 46 49 54
936.113548 171.739793 9809.809113 218 225 229
926.248360 -1055.508900 9996.709442 207 220 223
901.249599 -1819.344139 10038.914490 25 43 64
1005.141926 1953.030968 9579.962158 34 35 46
1012.899971 1445.506191 9695.146179 241 245 249
466.038561 -3409.131241 8171.602631 23 44 112
963.325119 -23.976484 9761.406708 37 41 46
1033.749580 1923.643494 9592.230988 237 241 246
949.418831 -1573.258972 10012.737274 58 64 73
984.795952 -188.018692 9766.053772 36 39 47
1050.079346 1391.469669 9655.411530 236 241 243
1050.079346 1391.469669 9655.411530 236 241 243
1023.491001 385.714865 9764.210510 30 35 43
486.805248 -3177.417564 8020.154572 36 49 81
988.651466 -1482.731056 9998.408508 155 171 178
784.240913 4869.098282 7477.892303 91 180 246
763.374186 4811.731339 7367.510223 91 180 246
471.339607 -3369.451523 7897.056580 0 1 24
1080.195618 1360.015488 9669.158173 30 35 44
1040.210915 353.877616 9711.226654 241 247 249
1076.460075 841.305256 9707.854462 242 248 251
1003.459549 -1959.723473 9981.592560 148 173 183
1120.514488 2181.239510 9520.422363 30 30 46
1112.432384 1328.544807 9686.299133 238 244 247
1061.526012 70.449024 9733.101654 45 49 50
1061.526012 70.449024 9733.101654 45 49 50
1089.662170 802.517700 9683.411407 33 36 41
1059.914494 -1338.326645 10002.389526 187 206 212
1100.883961 555.711985 9733.122253 42 45 49
1090.615177 -1065.373135 9981.675720 170 183 186
1055.570030 -1965.074730 9970.133972 35 65 85
1157.713795 1531.877804 9640.837097 50 53 57
1157.713795 1531.877804 9640.837097 50 53 57
1157.713795 1531.877804 9640.837097 50 53 57
1157.713795 1531.877804 9640.837097 50 53 57
453.388262 -3733.449936 7613.156891 94 119 158
1132.241249 792.649031 9691.801453 238 242 247
1156.639290 1756.713867 9576.859283 224 229 236
1156.639290 1756.713867 9576.859283 224 229 236
1156.639290 1756.713867 9576.859283 224 229 236
1146.622372 1297.173119 9588.986206 79 82 87
1126.157761 -1351.782322 9999.695587 202 221 226
1126.157761 -1351.782322 9999.695587 202 221 226
1155.904007 378.002644 9751.406097 29 31 39
1183.390808 2440.081215 9385.928345 211 216 219
1193.509102 2214.708138 9464.185333 35 38 45
1193.509102 2214.708138 9464.185333 35 38 45
1204.136467 1808.094978 9589.514923 238 241 245
1159.773350 -1077.390003 10005.948639 160 176 181
1160.884285 -1792.411423 10096.089935 58 78 90
1203.877258 1349.076653 9621.102905 33 36 47
1172.055054 -1389.958382 10032.875824 116 132 138
1221.431541 697.712183 9806.723022 239 246 249
1223.691940 1182.890129 9633.659363 238 244 248
1244.018173 2167.534447 9486.555481 35 40 48
1238.346291 1376.772022 9632.482910 233 240 241
1238.346291 1376.772022 9632.482910 233 240 241
1239.809513 1424.444389 9622.652435 43 46 52
1239.809513 1424.444389 9622.652435 43 46 52
1251.462173 2299.259377 9463.566589 35 32 46
1207.724571 -41.065526 9767.005157 243 246 248
1207.724571 -41.065526 9767.005157 243 246 248
1205.068970 -90.065593 9763.932037 34 37 42
1225.482941 154.671562 9781.748962 235 240 246
1269.194984 1901.738930 9566.234589 32 37 40
1269.194984 1901.738930 9566.234589 32 37 40
1241.663647 -14.159898 9765.631866 32 38 46
1269.390583 -1197.324848 10078.677368 105 121 127
1281.814957 1371.122360 9597.789764 42 48 51
1293.993950 1656.472588 9549.769592 32 37 42
1319.267368 1855.636406 9590.948486 36 40 47
1319.267368 1855.636406 9590.948486 36 40 47
1272.556686 -1658.043861 10069.300079 133 151 160
1301.613808 -1366.459656 10105.462646 207 225 231
1298.963356 584.888029 9693.981171 244 251 253
1313.701439 -1107.009602 10058.684540 192 208 209
1337.944603 1463.817406 9644.276428 47 49 57
1364.680004 1946.922302 9532.714844 41 48 55
1355.963326 787.348890 9704.738617 42 45 49
1359.294224 607.448292 9725.160217 39 42 51
1379.769230 2010.530663 9491.107178 240 245 245
1391.146660 560.142422 9774.796295 231 242 244
1391.146660 560.142422 9774.796295 231 242 244
1423.193455 1757.319260 9654.698944 38 45 48
1423.193455 1757.319260 9654.698944 38 45 48
679.393530 -3277.644730 7538.553619 113 137 184
1411.286163 523.201513 9751.929474 37 36 45
1418.017673 605.509615 9743.218994 50 52 63
1439.166355 1083.553505 9720.011139 39 44 53
1392.959023 -305.190611 9786.820221 46 46 50
1262.830544 -2361.543465 9633.149719 178 191 198
1430.399990 1517.859459 9539.212799 43 48 54
1297.423553 -2341.572380 9715.157318 16 45 74
1472.911549 924.816322 9746.108246 231 243 245
1472.911549 924.816322 9746.108246 231 243 245
1505.214882 -1857.674599 10371.121979 40 63 85
1476.912689 2045.583725 9491.698456 28 25 37
1478.794003 1406.808472 9605.223846 233 239 242
1484.813690 -1498.972893 10117.700195 89 105 117
1503.924274 -1612.159729 10203.947449 34 54 73
1503.924274 -1612.159729 10203.947449 34 54 73
1474.928665 385.663819 9715.731049 230 236 241
1474.928665 385.663819 9715.731049 230 236 241
1466.948128 -276.673818 9752.326965 31 33 41
1520.294094 2309.951401 9452.356720 37 40 45
1520.294094 2309.951401 9452.356720 37 40 45
1512.923431 1162.633610 9628.583527 232 238 243
1512.923431 1162.633610 9628.583527 232 238 243
1531.451511 -1284.280109 10118.009949 165 181 187
1485.426521 -150.381708 9748.017883 46 46 50
1485.426521 -150.381708 9748.017883 46 46 50
1514.743423 352.513433 9763.557434 24 30 40
1520.081043 706.539011 9673.387909 30 33 44
1499.741173 234.573770 9671.765900 49 51 52
1549.087715 1834.622765 9546.846008 232 238 242
1549.087715 1834.622765 9546.846008 232 238 242
1528.084278 -282.646680 9783.552551 36 34 41
1429.175377 -2575.075722 9763.424683 171 190 197
1429.175377 -2575.075722 9763.424683 171 190 197
897.974873 -3808.903885 7952.111816 44 62 96
1556.846237 266.409540 9720.897675 243 246 249
1585.184860 1680.314445 9566.570282 35 41 49
1563.395214 30.172643 9778.735352 43 47 48
1563.395214 30.172643 9778.735352 43 47 48
1225.013447 4451.293945 7691.091919 211 220 223
1565.306759 1247.850609 9495.115662 236 240 243
1565.306759 1247.850609 9495.115662 236 240 243
1565.306759 1247.850609 9495.115662 236 240 243
1577.919388 -2075.053596 10081.404877 22 48 71
1600.470734 1014.625645 9642.774200 46 49 53
1610.520363 2237.741661 9415.586853 237 241 242
1601.967049 -2400.852776 10107.844543 48 73 96
1655.666542 -1294.543171 10137.704468 143 159 165
1636.986160 1232.987404 9632.579041 33 37 43
1603.609467 -287.918735 9762.866211 31 37 43
1603.609467 -287.918735 9762.866211 31 37 43
1663.460159 -1383.863735 10149.871063 110 126 132
1450.400448 -2488.366890 9520.409393 55 72 84
1635.185051 204.551268 9739.813232 51 55 59
1654.800034 1746.178055 9537.292480 48 51 59
1706.855202 -1288.419819 10165.944672 205 221 227
1687.228012 1179.383755 9651.184845 27 33 40
1687.228012 1179.383755 9651.184845 27 33 40
1689.538002 2174.241829 9481.772614 227 233 236
318.579388 701.719093 4884.764099 235 247 249
1686.398888 2236.410522 9421.761322 235 238 242
1686.398888 2236.410522 9421.761322 235 238 242
1705.413818 1793.172073 9530.171204 68 71 80
1705.413818 1793.172073 9530.171204 68 71 80
1706.485558 -2341.080284 10182.264709 159 177 184
1739.264488 -1980.595207 10207.422638 119 137 144
1712.565613 2129.543304 9451.506805 32 30 44
1735.554314 -2259.042168 10209.589386 53 70 84
1735.554314 -2259.042168 10209.589386 53 70 84
1723.225975 2263.012886 9444.814301 32 29 44
1726.203918 1627.167702 9550.820160 235 242 245
1726.203918 1627.167702 9550.820160 235 242 245
1724.333382 1580.724335 9551.141357 40 43 48
1743.248177 1822.706604 9553.830719 220 226 230
1743.248177 1822.706604 9553.830719 220 226 230
1728.558159 416.464090 9731.007385 228 236 239
1749.774361 1870.068169 9559.884644 40 42 48
1747.652435 -2115.669441 10122.086334 169 187 194
1085.200787 -3963.036346 8082.443237 27 61 117
1768.898773 1098.396778 9684.859467 238 246 248
1768.898773 1098.396778 9684.859467 238 246 248
1034.197807 -3817.685318 7858.870697 27 61 117
1741.362000 -33.922979 9751.720428 32 34 42
1771.673775 572.129822 9708.331299 30 34 41
1801.917648 -2317.723465 10177.752686 55 76 89
1798.673058 1051.493359 9659.716797 38 42 48
1068.909740 -3954.571533 7891.632843 53 72 103
1878.224564 -1826.397705 10242.417908 188 207 212
1863.919258 -5.497881 9936.891937 230 239 241
1863.919258 -5.497881 9936.891937 230 239 241
1863.919258 -5.497881 9936.891937 230 239 241
1149.436760 -3710.126877 8023.456573 21 24 38
1881.934357 -2125.021362 10250.427246 168 184 190
1856.068039 749.626350 9751.245880 43 46 50
1856.068039 749.626350 9751.245880 43 46 50
1643.917847 -2826.738548 9537.132263 178 195 201
1855.420685 1022.836876 9663.240051 236 244 246
1911.089516 -2035.824776 10263.314056 72 88 95
1924.419022 -1877.112198 10277.772522 135 151 158
1864.248276 1417.829227 9581.971741 38 40 49
1643.784332 3350.207901 8505.380249 55 51 50
1868.498611 68.751001 9762.474823 39 42 48
1868.498611 68.751001 9762.474823 39 42 48
1947.882652 -2307.848930 10323.614502 182 199 206
1874.720383 1888.927650 9473.324585 35 37 44
1904.652977 492.194128 9791.229248 39 42 50
1941.060829 -1879.790878 10208.062744 178 196 203
1913.512802 569.908333 9762.280273 25 28 33
1671.818733 -2626.871490 9407.818604 24 52 76
1994.735146 -1780.226326 10309.028625 91 109 116
1994.735146 -1780.226326 10309.028625 91 109 116
1917.261505 154.820204 9774.668884 42 43 47
1917.261505 154.820204 9774.668884 42 43 47
2005.868149 -1299.710560 10246.633911 113 127 133
1938.209152 2005.073357 9437.126160 39 40 51
2047.705078 -1548.053837 10286.261749 177 193 199
2050.208282 -1329.620743 10266.020203 196 210 216
1976.050568 1612.503242 9571.961975 37 39 46
1968.667030 350.176120 9725.391388 218 225 229
1974.739647 1802.438354 9516.825867 34 38 43
1974.739647 1802.438354 9516.825867 34 38 43
1995.171165 594.608593 9755.829620 33 37 41
1997.822571 642.596817 9755.118561 242 245 249
1997.822571 642.596817 9755.118561 242 245 249
1970.951080 -317.130399 9792.282867 48 52 57
1970.951080 -317.130399 9792.282867 48 52 57
2085.070419 -2060.421371 10369.339752 183 195 205
1982.830811 -178.878844 9803.679657 37 40 49
1999.909592 -287.358332 9801.911163 245 249 251
2173.615837 -1699.215317 10469.066620 195 212 217
2137.518501 -2058.177948 10379.071808 89 103 109
2127.591896 -2172.304916 10354.148865 104 121 128
2127.591896 -2172.304916 10354.148865 104 121 128
2044.998550 698.789358 9709.985352 239 245 247
2138.240242 -2085.221291 10332.523346 191 207 214
2059.128952 -7.951782 9792.762756 47 49 50
2079.930878 181.132329 9793.265533 40 41 48
2200.757980 -2137.160110 10414.738464 78 94 101
2200.757980 -2137.160110 10414.738464 78 94 101
2098.111534 1237.127972 9615.544128 61 64 70
1495.754242 -2889.594269 8160.146332 240 243 241
2211.128616 -2162.091064 10388.146973 190 209 215
2211.128616 -2162.091064 10388.146973 190 209 215
2196.569443 -1497.687435 10256.645203 197 211 217
2196.569443 -1497.687435 10256.645203 197 211 217
2126.393890 1727.322006 9567.458344 222 229 231
2149.446869 174.458218 9851.854706 44 44 52
2124.548531 -190.693808 9817.244720 38 38 44
2117.875290 1231.408787 9587.868500 240 245 248
2150.480080 1691.854286 9618.206787 135 140 150
2150.480080 1691.854286 9618.206787 135 140 150
2150.480080 1691.854286 9618.206787 135 140 150
2156.443787 303.817129 9801.564789 28 31 40
2261.128235 -1761.947250 10357.707214 91 105 111
2119.983673 2373.675537 9375.619507 204 209 212
2171.323586 135.320699 9789.710236 239 242 247
2171.323586 135.320699 9789.710236 239 242 247
2287.137032 -1298.211670 10309.214783 185 200 203
2299.234962 -1682.581902 10385.337067 185 199 205
2284.397507 -1352.560997 10271.259308 174 190 196
2168.189812 1742.177010 9503.182983 30 33 39
2305.645370 -2168.887520 10392.722321 180 197 201
2183.638763 2108.156586 9452.243042 36 36 49
2209.256554 1548.077393 9560.131836 41 44 48
2209.256554 1548.077393 9560.131836 41 44 48
2253.371048 822.754478 9727.950287 34 36 44
2363.475037 -1334.780884 10288.298035 199 213 219
2363.475037 -1334.780884 10288.298035 199 213 219
2291.736794 405.724001 9843.521881 36 40 45
2237.675667 1350.961018 9548.798370 239 244 248
2256.879997 1544.035435 9551.006317 235 240 241
2256.879997 1544.035435 9551.006317 235 240 241
2259.957123 1589.914703 9549.136353 34 36 47
2259.957123 1589.914703 9549.136353 34 36 47
2262.196350 1781.309891 9501.448822 37 39 45
2457.423592 -2198.668289 10492.243195 191 209 215
2457.423592 -2198.668289 10492.243195 191 209 215
2456.566238 -1301.023197 10355.389404 181 196 199
2302.181435 1986.785507 9480.570984 29 29 40
2298.394203 979.293919 9583.863068 227 233 238
2298.394203 979.293919 9583.863068 227 233 238
2497.970009 -1711.172104 10458.736420 195 211 217
2497.970009 -1711.172104 10458.736420 195 211 217
2368.036079 1480.361271 9694.999695 228 231 235
2347.978973 902.097893 9689.736938 34 38 44
2292.153358 1463.972473 9455.821228 228 231 235
2374.312401 1205.310917 9702.552795 42 47 50
2524.053764 -1512.174225 10439.850616 108 122 128
2374.526215 -69.951254 9859.691620 211 214 216
2320.650864 1939.467430 9432.385254 227 231 233
2346.188354 1453.649807 9554.522705 200 204 208
2346.188354 1453.649807 9554.522705 200 204 208
2346.188354 1453.649807 9554.522705 200 204 208
2346.188354 1453.649807 9554.522705 200 204 208
2379.134178 -6.155768 9797.003174 42 38 46
2564.979935 -1267.691422 10435.870361 176 190 191
2366.069603 1898.050117 9475.331879 69 66 77
2392.006874 1853.441238 9537.670898 30 31 44
2583.655930 -2051.477814 10462.287140 194 208 214
2450.178909 311.635351 9838.372040 36 39 43
2450.178909 311.635351 9838.372040 36 39 43
2437.930107 363.000178 9791.842651 221 227 235
2437.930107 363.000178 9791.842651 221 227 235
2626.786423 -1816.609955 10488.813782 198 213 220
2651.974106 -1982.475662 10542.482758 113 124 130
2466.084862 1294.149113 9654.325104 37 37 43
2422.587776 1974.433517 9443.654633 28 30 39
2667.559624 -2129.275894 10548.118591 191 205 210
2504.790306 -228.481603 9845.584869 39 42 46
2674.357224 -1746.336937 10445.771790 181 197 203
2650.940895 -2095.148849 10385.857391 111 125 130
2708.967400 -1589.103508 10492.980957 197 213 219
2489.788055 1286.495781 9578.873444 232 236 240
2489.788055 1286.495781 9578.873444 232 236 240
2536.366844 769.814634 9738.901520 31 34 40
2582.213402 729.866838 9776.537323 42 44 47
2582.213402 729.866838 9776.537323 42 44 47
2553.012466 1613.553238 9557.325745 34 38 46
2598.576927 447.777557 9796.460724 47 48 52
2791.175270 -1589.615154 10510.856628 83 94 103
2708.325958 -2157.855988 10332.101440 206 220 226
2708.325958 -2157.855988 10332.101440 206 220 226
2795.459747 -1938.440895 10539.486694 101 113 121
2552.255058 2083.194923 9441.311646 38 42 47
2646.106529 154.227734 9896.925354 239 246 246
2770.051765 -2028.927612 10424.359894 189 206 212
2810.143280 -1343.622112 10464.521027 85 99 105
2655.183792 -252.728081 9938.690948 46 42 51
2860.723305 -1990.639877 10541.391754 91 104 112
2672.821045 630.223513 9792.810822 38 36 41
2878.024673 -1947.199440 10573.235321 191 207 213
2919.041824 -1881.286049 10644.675446 169 185 192
2919.041824 -1881.286049 10644.675446 169 185 192
2893.643951 -2115.229225 10571.590424 202 216 222
2664.166451 1658.664703 9582.184601 236 241 244
2923.235893 -1815.005493 10592.624664 97 113 120
2693.285179 1250.856495 9690.372467 23 22 31
2857.888603 -1972.518349 10406.082153 184 200 204
2721.499443 790.120411 9789.272308 220 224 229
2721.499443 790.120411 9789.272308 220 224 229
2728.918648 1327.140522 9688.061523 34 37 42
2728.918648 1327.140522 9688.061523 34 37 42
2657.774734 2058.895111 9405.419159 38 42 47
2657.774734 2058.895111 9405.419159 38 42 47
2719.769287 1520.333290 9619.159698 41 40 43
2719.769287 1520.333290 9619.159698 41 40 43
2705.462646 1563.619423 9568.237305 233 238 239
2973.952675 -1510.073471 10516.358948 182 197 203
2760.917473 786.393499 9755.878448 31 35 40
2996.261597 -1997.722054 10607.176971 187 203 210
3007.378578 -2087.489700 10632.786560 186 203 210
2703.178596 2034.816551 9453.536224 235 238 242
2703.178596 2034.816551 9453.536224 235 238 242
2783.223915 -0.719080 9871.389008 42 41 49
2795.191002 -53.323507 9898.664093 45 44 53
3042.648125 -1862.233543 10663.343048 100 116 123
2761.810684 1560.497570 9583.538055 32 34 42
2761.810684 1560.497570 9583.538055 32 34 42
2782.936096 439.509439 9749.066162 40 44 49
3065.326691 -1610.721779 10652.120209 198 213 221
3045.092964 -1949.149132 10575.637817 192 207 215
2821.649551 -101.080048 9855.587006 233 238 243
2851.387215 431.390858 9861.754608 37 38 44
2784.849930 1350.744915 9595.220184 41 43 52
3131.002998 -1669.028473 10680.236053 185 201 208
2831.950188 1409.467125 9592.697906 36 39 44
3169.822884 -1776.453209 10682.975006 105 121 128
2876.754570 1447.675514 9643.450165 214 217 221
3196.269798 -2001.167870 10690.956116 181 197 204
3196.269798 -2001.167870 10690.956116 181 197 204
2914.712524 955.156708 9739.157867 42 43 47
2951.733780 495.394230 9876.390076 56 57 63
2967.213631 -234.775901 9971.916962 41 43 46
2956.323814 851.305008 9817.015076 31 29 35
2962.133217 70.227093 9895.944214 38 41 45
2838.406181 2123.286438 9376.091766 35 38 42
3293.083191 -1551.173019 10703.773499 191 209 215
2961.607361 1547.767925 9599.868774 26 28 31
3000.390434 1741.223526 9675.569916 40 41 45
2977.607918 1745.782852 9591.918182 38 39 43
3386.515045 -1613.324928 10789.540863 189 201 210
3386.515045 -1613.324928 10789.540863 189 201 210
3386.515045 -1613.324928 10789.540863 189 201 210
3063.387299 929.536438 9703.404999 217 222 225
3410.190201 -1804.559517 10677.574158 196 212 219
3317.663574 -20.992146 9969.644928 165 169 173
3401.902008 -605.719137 9957.670593 51 52 61
3814.614868 2970.456696 10536.630249 75 162 236
3506.815338 -567.866135 10071.746063 41 44 49
1636.405563 3442.405701 5616.455841 36 36 36
3416.481018 -397.528505 9809.835815 209 216 222
3569.854736 2839.652061 9647.501373 14 21 30
3607.037735 2725.684738 9654.061890 25 33 40
4134.633255 423.758364 10753.628540 135 149 163
3619.355774 1998.577881 9563.117981 67 72 72
2396.055603 2772.744751 6938.278198 39 47 76
2050.358582 3029.933929 6195.486450 31 31 35
2655.997849 2730.721474 7446.785736 207 220 223
3910.397339 1123.672962 10139.344788 191 206 209
3709.278107 2168.308258 9589.183807 172 179 180
3676.845932 2225.492668 9508.987427 191 203 204
3349.106216 2608.856010 8764.668274 119 134 137
3440.756226 2543.623734 8945.716095 190 205 208
4100.759506 1804.501724 10322.955322 150 164 170
4100.759506 1804.501724 10322.955322 150 164 170
4503.377151 1514.301968 11104.946136 136 150 154
5059.373093 544.215584 12219.792938 206 223 226
4575.775528 1410.881138 11202.291107 193 209 215
4729.541016 1239.175034 11486.128235 73 86 98
2058.753395 2898.899651 6023.307037 189 192 236
3427.342224 2461.237335 8792.920685 215 229 234
3949.180222 1993.103981 9846.741486 200 215 218
4563.538742 846.167564 11060.617065 53 72 89
3564.990234 2349.758530 8981.029510 209 225 230
3992.689514 1949.559975 9785.306549 220 238 240
3648.744965 2281.982803 9083.612823 161 176 181
3648.744965 2281.982803 9083.612823 161 176 181
3710.993195 2205.917358 9148.645020 206 221 223
4030.709076 1991.982460 9782.869720 164 181 184
3605.892563 2316.095161 8927.053070 207 223 229
3409.091187 2449.313354 8507.643890 217 233 238
4506.002808 1606.853676 10629.962158 169 187 194
3005.100822 2441.771126 7599.856567 214 230 234
4539.472580 1908.652306 10545.333862 174 192 193
4024.122238 2119.093895 9496.532440 223 237 240
4182.522583 1998.008919 9794.581604 152 168 174
2666.098213 2583.627701 6883.835602 215 232 235
2536.509132 2644.069862 6622.725677 41 53 109
2574.198341 2620.144653 6599.223328 210 231 236
3028.973007 2520.742798 7348.429108 75 97 110
3028.973007 2520.742798 7348.429108 75 97 110
2487.381935 2746.436691 6254.181290 86 98 172
2901.832199 2575.160789 7013.795471 165 182 187
3070.139503 2523.205948 7299.695587 66 86 103
3593.343735 2446.808624 8224.784851 157 173 179
3162.594604 2402.245903 7429.193878 196 213 217
1880.018044 3062.253571 5056.282043 0 3 7
3588.085175 1559.428310 8119.454956 24 57 96
3162.146950 2614.590645 7266.803741 199 217 224
2960.749626 2605.368614 6908.155060 173 189 196
2877.502632 2592.653084 6745.844269 171 187 192
2885.903740 2623.800659 6716.766357 222 238 242
2753.493500 2664.342308 6450.865173 72 83 125
3223.614120 2686.053276 7245.725250 175 193 200
1992.085838 2894.072342 5101.148224 84 102 168
3261.225891 2642.796326 7261.275482 119 143 163
2773.270798 2650.765038 6401.393127 196 216 219
2062.476921 2862.352562 5169.680786 82 105 169
3202.520370 2723.379898 7101.469421 178 196 207
3306.257248 2706.293678 7267.191315 66 89 111
3382.777023 2636.747551 7323.937988 64 88 109
2767.369080 2673.269272 6282.406616 40 53 96
3386.478806 2686.085892 7305.104065 37 58 82
2512.836266 2749.433327 5812.502289 93 113 171
3837.395096 2529.146194 8020.590210 200 218 232
2800.630569 2675.214386 6279.763794 199 217 228
2834.355164 2732.217216 6296.689606 49 68 107
2816.932678 2703.075218 6236.680984 187 206 218
2816.007233 2764.676857 6161.391830 23 40 78
2816.007233 2764.676857 6161.391830 23 40 78
1870.663452 2857.687378 4597.394562 78 88 164
2830.794334 2798.990631 6135.662842 31 41 89
1998.982430 2983.635521 4728.576279 42 45 51
2869.564247 2939.381409 6099.227905 12 24 70
2980.475235 2962.108612 6237.597656 88 157 217
3052.147865 3047.649384 6332.530975 78 152 218
2121.104050 2933.539772 4793.142700 84 89 175
2537.667465 2973.636436 5426.931000 104 127 186
2165.659904 2982.313919 4849.582672 169 173 217
2484.439659 3095.903969 5253.448868 50 71 143
-2569.611549 1573.612785 9814.247131 138 172 205
-2348.098564 1937.457085 9486.175537 106 130 149
-2227.507782 2159.903145 9074.874878 82 104 125
-2222.578621 2161.079979 9135.919952 96 117 138
-2211.108208 2151.706696 9084.303284 96 117 138
-3243.361664 738.688564 13932.186890 137 169 205
-2116.159058 2359.648514 8819.682312 102 123 146
-2093.630791 2227.857590 8921.027374 211 232 238
-2054.504776 2417.185974 8794.734955 107 131 147
-2094.429588 2222.161674 9012.777710 181 202 210
-2317.221260 2523.177338 10528.089905 94 112 123
-2006.055832 2388.991165 8792.182922 122 144 159
-1879.017067 2641.394806 8484.774780 191 216 222
-1897.087860 2541.666222 8578.009796 111 132 140
-2093.573570 1740.500259 9437.297821 112 127 139
-2027.395439 1954.877472 9204.249573 210 228 234
-2027.395439 1954.877472 9204.249573 210 228 234
-2118.979073 1666.867828 9617.946625 144 166 174
-1882.398415 2463.531876 8662.096405 144 166 178
-2142.452240 1562.586308 9813.475037 40 52 62
-2061.923027 1685.508919 9441.716766 176 197 205
-2033.429909 1800.079727 9410.699463 184 205 212
-1863.331795 2439.118767 8670.240021 197 219 225
-1870.745850 2368.133163 8758.073425 141 162 169
-1816.171455 2558.071518 8562.359619 154 175 183
-1830.271721 2431.414795 8684.609985 151 172 181
-1830.271721 2431.414795 8684.609985 151 172 181
-1785.138893 2602.458954 8487.906647 157 177 185
-1774.462700 2634.407234 8466.956329 159 179 187
-1834.150124 2365.792847 8756.504059 205 226 232
-2052.489090 1357.012177 9670.141602 40 57 75
-1905.805969 1967.698479 9061.370850 208 227 232
-1799.481964 2482.281303 8643.156433 140 159 170
-1739.677620 2651.662254 8344.358826 166 187 196
-1767.186928 2581.803513 8516.829681 199 219 226
-1977.361107 1712.625694 9477.356720 136 156 166
-1894.466782 2051.050377 9107.539368 207 225 231
-2025.133896 1600.941086 9749.454498 172 191 198
-1610.120392 3162.362480 7832.551575 104 121 138
-2108.952522 902.763557 10042.288971 152 172 184
-1759.189987 2402.285957 8638.833618 134 153 161
-2037.363434 1256.746292 9991.421509 154 174 183
-1954.107666 1618.349266 9798.367310 132 150 158
-1557.567024 3082.585526 7866.146088 193 213 223
-1888.243675 1784.218025 9477.259064 168 189 197
-1606.209183 2893.410301 8139.614105 99 123 138
-1521.556091 3581.442261 7937.650299 27 83 141
-1745.636749 2263.856697 8864.765167 220 242 245
-1880.352020 1752.050972 9605.836487 64 81 89
-1695.916367 2395.405960 8743.305206 153 172 179
-1531.990147 3020.654678 7949.293518 198 219 226
-1771.069336 2013.907623 9232.647705 199 219 224
-1878.371239 1653.713608 9825.346375 168 186 193
-1982.266426 644.436264 10186.749268 96 118 130
-1575.489044 2608.961868 8396.834564 216 236 241
-1575.489044 2608.961868 8396.834564 216 236 241
-1743.333435 1913.919258 9412.377930 168 187 195
-1332.844353 3941.685486 7447.103882 60 159 237
-1428.849316 3238.030243 7807.356262 168 196 210
-1560.468388 2581.974411 8453.608704 158 177 184
-1830.002403 1260.493755 10024.861908 182 201 209
-1878.795052 831.155872 10171.338654 78 99 111
-1862.430000 967.619228 10127.326202 124 143 156
-1805.057144 1383.436108 10023.315430 110 129 139
-1244.490337 4244.878769 7240.631104 78 107 172
-1242.576790 4238.935852 7228.247833 78 107 172
-1681.281662 1913.310432 9423.262024 158 180 188
-1468.064404 2684.954071 8186.761475 206 228 234
-1840.927315 840.922070 10137.375641 134 153 166
-1636.969948 2097.661591 9267.517090 103 121 129
-1636.969948 2097.661591 9267.517090 103 121 129
-1913.719368 35.883033 10324.389648 69 93 111
-1214.238739 4323.187256 7137.780762 81 109 176
-1338.383389 3451.707840 7694.476318 160 184 200
-1824.192810 783.707857 10112.052917 144 166 177
-1737.275314 1698.358727 9957.372284 170 190 195
-1349.864864 3267.435837 7786.243439 114 134 149
-1349.864864 3267.435837 7786.243439 114 134 149
-1419.889164 2784.318733 8129.280853 113 133 148
-1784.519196 1128.954983 10147.185516 60 77 86
-1175.215816 4447.220612 7076.236725 36 77 152
-1622.510529 1999.364090 9433.492279 84 99 106
-1622.510529 1999.364090 9433.492279 84 99 106
-1842.284393 20.768373 10289.160156 54 73 88
-1347.228241 2988.119888 7879.908752 181 202 210
-1360.068989 2896.238327 7998.506165 190 212 218
